# .PCD v0.7 - Point Cloud Data file format
VERSION 0.7
FIELDS x y z
SIZE 4 4 4
TYPE F F F
COUNT 1 1 1
WIDTH 1297
HEIGHT 1
VIEWPOINT 0 0 0 1 0 0 0
POINTS 1297
DATA ascii
0.498676 0.081768699 1.04632
-0.43543199 -0.33048201 1.30119
-0.22297899 -0.20327599 1.20095
0.358163 0.237131 0.879287
-0.00013394401 0.038696501 1.0172
0.491593 0.089024998 1.0309401
0.230602 0.055410601 1.03356
-0.27733999 -0.091393203 1.09182
-0.013153 -0.16431201 1.19968
-0.043879099 -0.089443602 1.1289001
-0.31524199 -0.00201721 1.00814
0.184165 -0.077240698 1.15075
-0.31236801 0.031831399 0.96753699
0.281629 0.25239399 0.86005598
-0.34355199 -0.0177244 1.0080301
0.35095 -0.064634897 1.16872
0.186676 0.095649399 0.98804802
0.38336301 0.225812 0.884628
0.074152097 0.080634899 0.98398101
0.084706001 -0.00288807 1.06233
-0.0043280702 -0.119164 1.16444
0.041036401 -0.105568 1.15588
-0.106603 0.149371 0.89749199
0.39402899 0.183661 0.94474399
0.40332001 0.057025101 1.0629801
0.292326 -0.044709399 1.13562
-0.31507799 -0.053696301 1.05478
0.397834 0.113123 1.0035
0.35807601 -0.082814798 1.18531
-0.086691901 0.073936202 0.96896398
-0.0418525 -0.109309 1.15005
-0.152344 0.0508908 0.97934997
0.488792 0.163313 0.96082801
0.47487199 0.087634802 1.03079
0.371025 0.051249899 1.05875
-0.022595501 -0.095458999 1.13454
0.37933701 0.177912 0.94053602
0.177848 -0.0092427004 1.0849
-0.164832 0.0251645 1.00661
0.020738799 0.080522701 0.97946
0.28597799 -0.027664701 1.12058
0.46773899 0.111255 1.008
-0.25167099 0.1099 0.90403199
-0.0246622 0.048044901 1.00272
-0.30387801 -0.083580203 1.08086
-0.261388 -0.110723 1.11766
0.0584471 0.129794 0.93981701
-0.33713201 -0.12811901 1.1131901
0.094822399 -0.00363705 1.06394
0.40467501 0.24435399 0.88304597
0.094829097 0.159981 0.91534501
0.47393501 0.074648097 1.06215
-0.028775301 0.10884 0.94659901
0.33547601 -0.0306869 1.13241
0.44688201 0.107834 1.01482
0.11441 -0.0069503002 1.06335
0.117962 0.072712101 1.00033
0.30607599 -0.0508832 1.1447001
0.281358 -0.13476101 1.22342
0.32444 -0.053128399 1.15091
0.43435499 0.15599699 0.96790099
0.32199299 -0.121146 1.20855
0.37635601 -0.0982752 1.193
0.370985 0.15933099 0.95405102
0.268062 -0.032549001 1.12096
-0.061679699 0.125258 0.92535299
-0.27217501 0.073134899 0.93769503
-0.332661 0.0101547 0.97806698
-0.33562201 -0.0778336 1.06721
0.42431599 0.17470101 0.94389403
-0.092110403 0.040705599 1.00001
0.39008901 0.063793302 1.05246
-0.028647101 -0.108167 1.14983
0.16316301 -0.089514002 1.15828
-0.17844599 0.047497898 0.97795498
-0.16141599 -0.0115097 1.0412101
0.31182799 0.234254 0.877424
0.065422997 -0.108844 1.16201
-0.32504901 0.00033104999 0.995067
0.13428199 0.18471199 0.90195501
-0.30924401 -0.075687699 1.0759799
0.418387 0.082637601 1.0356801
-0.338806 -0.087555498 1.08189
0.45177099 0.128067 0.99235302
-0.107606 0.10925 0.939125
-0.218371 0.069416203 0.95550501
0.313954 -0.0276 1.13841
-0.25817299 0.123794 0.88552397
-0.29607201 -0.137043 1.13651
0.40485299 -0.0057329698 1.12011
-0.32556301 -0.020772301 1.01684
0.079526998 0.125971 0.94668901
0.25234801 -0.0287899 1.1160001
0.314675 0.205345 0.90774
0.143006 0.113236 0.96785402
0.363547 -0.044789001 1.1511101
0.202416 -0.063271299 1.14045
0.15745801 0.089505099 0.98897803
-0.233303 0.156601 0.855627
-0.29328999 0.064562701 0.94365901
0.412404 0.097002901 1.02117
-0.32528499 -0.0476771 1.04243
-0.34378001 -0.037983499 1.03105
0.120476 0.118438 0.96057302
-0.255209 0.133913 0.87906098
0.084991798 -0.00163365 1.0632499
0.238426 0.039032701 1.05066
-0.330118 -0.010616 1.0067
0.067207202 0.077861398 0.987315
0.31726399 -0.039854798 1.1379
-0.30093101 -0.0885721 1.0877
0.38044101 0.14690299 0.96957999
0.24135201 0.019840701 1.06822
0.441412 0.12888999 0.992805
-0.280321 -0.147999 1.14809
0.228138 -0.121629 1.20156
0.383708 -0.0838269 1.18795
0.42101601 0.184251 0.93513399
-0.28762299 -0.103992 1.10267
0.095897801 0.0250015 1.04083
-0.27318701 -0.128016 1.13973
0.403936 0.073365003 1.04115
-0.32451299 -0.038104702 1.03467
0.373184 -0.072942004 1.1804301
-0.0232551 -0.092900999 1.1357501
-0.28760099 -0.121812 1.1228
0.442828 0.0447242 1.07243
-0.34280199 -0.057314102 1.04589
-0.0121391 0.0891826 0.96742302
0.103428 0.041799098 1.02723
0.374134 -0.0570563 1.16728
0.20552 -0.012104 1.0925699
0.41434699 0.040125601 1.0696
0.39010099 -0.027213801 1.12576
-0.090791799 0.070937298 0.97482097
-0.30307099 0.062739298 0.93139398
0.50480402 0.17296 0.95391101
0.49131301 0.158428 0.966295
-0.31879199 -0.115413 1.10326
-0.27056801 -0.101703 1.10061
-0.0021714801 0.095806397 0.96555603
0.40277499 0.0213785 1.08798
0.331402 -0.127234 1.23703
-0.28468299 -0.180243 1.16399
-0.33976501 -0.045527302 1.04074
0.306153 -0.14165799 1.22613
0.364162 0.15169001 0.96910799
-0.308272 -0.089362599 1.08377
-0.34264901 -0.0272997 1.01424
-0.108653 -0.068286002 1.10287
0.099925697 -0.032252099 1.0942
-0.376991 -0.0527297 1.03478
0.47253001 0.112662 1.01613
0.43780401 0.073823802 1.04693
0.119664 0.0609353 1.01042
-0.29608899 -0.0400251 1.04706
-0.32565299 -0.10449 1.0923001
-0.12647501 -0.059324302 1.08858
0.30107799 -0.117527 1.21277
0.097887702 -0.0335197 1.0956
0.26304901 -0.14727101 1.2334599
0.35552299 -0.123467 1.21979
-0.107598 0.050932899 0.99209899
0.0137664 0.135803 0.927279
0.115965 -0.104038 1.16638
0.218153 -0.045466699 1.12893
0.317316 -0.0275473 1.12511
-0.025541 -0.0167687 1.06329
0.115159 0.166511 0.89867699
-0.358619 -0.113208 1.0911601
0.094663098 -0.030623199 1.10379
0.16191 -0.00151362 1.079
-0.00246073 -0.096914202 1.1424201
-0.2454 0.076633401 0.939511
0.335417 -0.034081899 1.13592
0.424299 0.15850601 0.95859301
-0.223837 -0.146974 1.16162
-0.26917699 0.10774 0.902659
0.450973 0.14912 0.97370303
0.124265 0.163017 0.91999602
0.46530899 0.19079299 0.93320698
-0.31845301 -0.063877098 1.06384
0.24085 0.00193776 1.08505
0.027742101 0.025455501 1.03192
0.42188099 0.203372 0.91786802
0.47690201 0.176377 0.94758499
0.292404 -0.14404801 1.23263
-0.28655601 -0.0704033 1.07542
-0.313862 0.0053528198 0.99407899
0.39336401 0.12061 0.986233
-0.0154481 -0.116635 1.16107
0.30622199 -0.122617 1.2180901
-0.015935499 0.064176701 0.989739
-0.24008401 -0.131266 1.14835
0.40865099 0.104549 1.01182
-0.0116321 0.137747 0.92420799
-0.242109 0.0643913 0.95431203
0.41452599 0.062595099 1.05027
0.57213598 -0.32316899 1.45806
-0.233613 0.161678 0.855012
-0.00656449 0.023161801 1.02616
0.041448399 -0.088083997 1.13492
0.100039 0.17665499 0.90068102
0.310644 -0.035917699 1.13265
0.406084 0.098560199 1.0141799
0.038255099 0.13412 0.93387598
-0.30618301 -0.120354 1.11762
-0.296776 0.058216199 0.94721001
-0.153933 0.057644099 0.97597402
0.43959799 0.082512297 1.0305099
-0.290268 -0.062585197 1.07192
-0.0114844 0.135635 0.923765
-0.35206601 -0.0560688 1.03702
0.40414199 0.073415503 1.04093
0.0106601 0.065096699 0.99834901
0.45088899 0.073367499 1.04131
-0.25506401 -0.15954 1.16092
-0.043751001 -0.089356698 1.12885
0.40286601 0.091180302 1.0259399
0.40327701 0.091197498 1.02615
0.239949 -0.16213401 1.24445
0.18468 -0.072456703 1.15315
-0.20861 -0.159187 1.17685
0.451812 -0.00039207001 1.1136
-0.232683 -0.15802801 1.16596
-0.30081001 0.00076970301 1.0096999
-0.31427801 -0.071923196 1.0648201
0.38906401 0.086088099 1.03227
-0.085029297 0.115629 0.93058097
0.40447199 0.055982798 1.06365
0.48593801 0.109945 1.0103
0.12723599 0.184416 0.89966297
0.348968 0.167987 0.948098
0.074441597 -0.00047075399 1.06189
-0.31491801 -0.18807 1.17307
0.379049 -0.191423 1.28863
0.327676 0.221461 0.903341
-0.00056556403 0.136647 0.92115802
0.30353799 0.28022301 0.83427101
0.444215 0.071305998 1.0611399
0.33192101 -0.14650001 1.23829
0.375938 0.181013 0.94474202
0.42626601 0.089338697 1.02439
0.27909899 0.259911 0.85932702
0.125935 0.943685 0.192123
0.0268186 0.095610604 0.96842402
-0.090703599 0.260827 0.78893203
0.35075599 0.181216 0.932289
0.47957301 0.11687 1.00465
0.26285401 -0.10563 1.19213
-0.24226899 -0.13042399 1.14273
0.47607601 0.100302 1.01922
-0.28964701 0.0407231 0.96904802
-0.287081 -0.13262001 1.12797
0.265219 -0.0268187 1.11239
0.065435097 -0.1085 1.1619
-0.31432 -0.0978278 1.10017
-0.18746001 -0.17470001 1.1928101
-0.23454 0.133734 0.87947702
0.19420999 0.0119167 1.06633
0.43869001 0.076329298 1.04775
-0.16861001 0.21951 0.81268799
0.22520199 -0.0267951 1.1179399
0.382487 -0.133459 1.2344
0.247283 -0.0215862 1.10763
0.172957 -0.0184322 1.0913399
0.204657 0.083507799 1.00128
0.459077 0.187833 0.93776703
0.118718 0.161061 0.918621
-0.039551299 -0.106566 1.14624
-0.153833 -0.0284534 1.0581
-0.0371329 0.132173 0.922957
0.111469 -0.104782 1.1706001
-0.31884301 -0.081930697 1.0825
-0.034064099 0.30238301 0.76981503
-0.344226 -0.069566399 1.0518399
-0.24975599 0.065869801 0.95359099
0.217053 0.28354701 0.82659298
0.0035810999 -0.109725 1.15662
-0.22282401 -0.148913 1.15964
0.091740303 0.0029365399 1.06271
0.41791001 0.0539276 1.05726
-0.28859499 -0.137815 1.13745
0.16132499 -0.0045560198 1.08002
0.46684599 0.0973382 1.02184
0.33419901 -0.037771702 1.13788
0.23052201 -0.031160001 1.11455
0.20029201 0.0096939802 1.0695699
0.460518 0.101116 1.02262
-0.281535 0.141543 0.870215
0.126004 -0.131116 1.1945699
-0.328289 -0.090068497 1.0823801
0.0065262001 -0.121179 1.16723
0.42704901 0.096729703 1.02219
0.147191 0.069809698 1.00694
-0.29653701 -0.042284999 1.053
-0.024329999 -0.111305 1.15502
-0.0370722 0.0288141 1.0247
0.38799801 0.0332954 1.07607
-0.13482 0.25819501 0.79150403
0.479561 0.085213602 1.03453
-0.25213799 -0.120586 1.131
-0.27769399 0.0935698 0.91660202
0.42572701 0.118038 1.00921
-0.325708 -0.099709198 1.08952
0.4131 0.063421696 1.04822
-0.261538 -0.110517 1.11778
0.32891899 -0.091123998 1.19102
0.40789899 0.13423599 0.99195802
0.44338301 0.045939699 1.0726399
0.46148801 0.088897198 1.03255
0.33302 -0.040610202 1.13511
0.055022702 0.080904797 0.98323399
-0.32854199 -0.125605 1.10611
0.175945 -0.0131642 1.0885299
0.31115699 -0.034625199 1.13346
-0.037571602 0.021904301 1.02583
0.110156 0.289639 0.79408997
0.395316 0.12806299 1.00344
0.139641 0.073647298 1.01328
0.81050098 0.44620499 0.75522703
-0.159987 0.23118301 0.806615
0.36837301 -0.066689901 1.17654
-0.156394 -0.0237848 1.03616
0.1199 -0.38112199 1.41728
-0.122977 -0.219363 1.24226
0.080724597 0.0037034301 1.06205
0.039907899 0.29736099 0.78095502
0.158563 0.28167701 0.80840999
0.16483 -0.44205099 1.4992
0.26986599 -0.221938 1.3042901
0.40894601 0.0275233 1.08963
-0.104064 0.25068599 0.80225098
0.33086801 -0.083709396 1.19188
-0.14495499 0.250339 0.796251
-1.1612999 0.45316401 0.431384
-0.178885 0.25122401 0.79350698
-0.305911 -0.051085301 1.04458
0.26655701 0.26805699 0.84654802
0.371342 -0.053291101 1.17134
0.32871899 -0.034814101 1.1431
0.114765 0.316156 0.78397101
1.02695 0.20269801 1.0347199
0.228045 0.28659701 0.823165
-0.137097 -0.050752699 1.07397
0.18074299 0.10224 0.99054199
-0.088785298 -0.23222201 1.26196
0.45706299 0.122582 1.0122499
0.167052 -0.21557 1.28023
-0.101417 0.088893399 0.943443
-0.240245 0.040364102 0.97095501
0.065608002 -0.036950801 1.09418
0.11344 -0.111791 1.1698101
-0.327757 -0.449067 1.4237
0.112076 -0.22290701 1.27508
0.108466 0.0110904 1.0644701
-0.55574602 -0.0645229 1.0219899
-0.037746198 -0.118562 1.16014
0.52318102 -0.31262401 1.41996
-0.058112301 -0.080911301 1.11789
0.087785497 -0.21359999 1.27396
-0.0067767398 -0.100008 1.1530499
0.33175701 -0.152439 1.25064
0.41707 -0.30102801 1.3944499
0.25466299 -0.177522 1.25693
-1.25618 1.00787 -0.090224102
-0.43988001 -0.32665801 1.2984101
-0.151658 -0.195454 1.21144
-0.33390799 -0.071337797 1.06199
0.35855201 0.212363 0.91861397
0.45586899 0.120785 1.01324
-0.138248 -0.23548201 1.2464499
0.105631 0.33162001 0.750085
0.062771201 -0.215239 1.27373
0.67698997 -0.30707699 1.4405
-0.31980401 -0.076892696 1.0758801
0.40801799 0.247315 0.89274502
0.173016 -0.0128061 1.08952
0.28256801 -0.268601 1.33781
0.27016699 -0.23487701 1.30636
0.35845 0.208069 0.91996998
0.078828603 -0.23455501 1.2878799
0.226257 -0.0175758 1.11493
-0.257487 -0.116442 1.11867
-0.0243531 -0.115227 1.15725
0.013815 -0.464333 1.4809999
0.0389072 -0.100944 1.15651
0.089179099 0.168236 0.91380298
0.524266 0.185211 0.95928299
-0.30331999 -0.0865063 1.07592
0.371084 -0.054855999 1.1719
0.00022028601 -0.122701 1.16035
-0.13783 -0.047419801 1.07391
-0.061989199 0.28414199 0.77837002
-0.30208999 0.03042 0.967031
0.213778 0.081337199 1.01841
-0.26249701 -0.109679 1.11154
-0.23563699 0.166279 0.85311401
0.0086149899 -0.107783 1.15877
-0.30492499 -0.137657 1.12019
-0.028259899 -0.0987285 1.1461
-0.227984 0.073573403 0.94352698
-0.10435 -0.20818301 1.23414
0.13991 -0.097530201 1.16422
0.016356699 0.29205501 0.77825701
0.142308 0.33814099 0.75159502
0.073398098 -0.032575801 1.08398
-0.218257 0.18006501 0.84013999
-0.123606 -0.061753601 1.08864
-0.30970901 -0.0153083 1.00428
-0.062325001 0.129711 0.92473698
0.326004 -0.0453551 1.15308
-0.30142701 -0.089810401 1.07614
-0.184995 0.21726701 0.81433302
0.48469901 -0.12869801 1.24718
0.133735 0.18639401 0.90193403
0.45196101 0.25597301 0.88212103
-0.258259 -0.18454 1.17144
0.35890099 0.237204 0.87915498
0.18215699 0.34394899 0.74415499
0.39928499 0.122444 1.00396
0.45331699 0.167933 0.97655302
0.30747199 -0.046084501 1.14683
0.40686101 0.23696201 0.89521003
-0.028089499 -0.094100803 1.13743
-0.187829 -0.20410199 1.20886
0.54909003 0.21272799 0.93017501
-0.0221924 0.32925799 0.73312598
0.44143501 0.088928297 1.048
0.032680701 0.34312201 0.72128201
0.24724901 -0.207623 1.28986
-0.32174799 -0.029771401 1.0168999
-0.084236801 0.116103 0.93088198
0.38371 0.22611 0.88436401
-0.23146699 -0.163279 1.16505
-0.28562701 -0.12976401 1.12176
-0.0127801 0.30173001 0.77425098
-0.0134365 0.093345203 0.96708101
-0.26741201 0.144481 0.879897
0.436652 0.177222 0.96508098
-0.24225999 0.041875001 0.97001803
-0.27637199 0.090635099 0.91580403
0.109395 0.0104308 1.06458
0.089491099 -0.105522 1.16633
0.080402702 0.0026444399 1.06217
0.16868301 0.293033 0.80570197
0.222039 0.27443701 0.82920998
0.163242 0.29223999 0.803774
0.49873999 0.228109 0.910061
0.43590301 -0.102768 1.21323
0.114269 -0.100736 1.1670099
0.198321 -0.0021224101 1.0927
0.21623801 -0.042535301 1.1292
-0.26112401 0.122714 0.88711202
-0.31097701 -0.011488 1.00607
0.311524 0.232622 0.878079
-0.103802 -0.225806 1.24246
0.37970299 0.178169 0.94002098
-0.29947299 -0.095196597 1.08648
0.121181 0.196253 0.88920701
0.310963 0.220779 0.89403999
0.099831797 0.122757 0.953637
0.406793 0.13182899 0.99134201
0.409549 0.160119 0.96043599
0.269238 0.26078799 0.84770298
-0.108922 0.0540656 0.99109
-0.305567 -0.099017799 1.08533
-0.14003401 0.074148104 0.96134299
0.363736 0.171455 0.94788003
0.359795 0.209363 0.91952801
0.33814001 0.21426199 0.89969301
-0.306519 0.0278074 0.971506
-0.100832 0.245535 0.804497
-0.220286 -0.156958 1.15969
-0.233468 0.0546229 0.95939302
-0.16036899 -0.0132296 1.04017
-0.089179397 0.035922199 0.99988598
0.126568 0.287083 0.79633301
0.453679 0.104778 1.03228
0.036226701 0.140496 0.93297601
0.202723 0.278072 0.81985098
-0.257855 0.049125802 0.962982
-0.036727399 0.13282099 0.922755
0.52408898 0.13071699 1.01668
0.23582 -0.0109438 1.1039799
0.35907099 0.177956 0.940485
-0.0208355 -0.0093304599 1.0553499
0.121157 0.292005 0.79360402
-0.30026999 -0.0267625 1.03249
-0.16863 0.22444899 0.80254501
0.129601 0.033783302 1.03826
0.081392601 0.0051636901 1.0637701
0.36261699 0.136374 0.96982801
0.36985299 -0.063544102 1.18125
-0.188142 -0.20183 1.20786
0.44323301 0.200477 0.91861701
-0.132594 0.23512401 0.80053401
-0.052208502 -0.0114454 1.0545599
-0.30754399 -0.051965401 1.04081
-0.091707997 0.040221501 0.99988103
0.40983 0.14073201 0.98983002
0.190892 0.28091699 0.81530398
0.38445601 0.112082 1.0083899
0.098564804 0.29941401 0.78829998
0.058214601 0.131956 0.93993503
-0.0120325 0.139934 0.92314202
-0.12487 0.090339601 0.948847
0.114833 0.0044114301 1.0665801
0.40663001 0.221296 0.89861602
0.161994 -0.085973002 1.1597
-0.26712799 0.10387 0.90158498
0.18273699 -0.0729784 1.15198
0.066799998 -0.036074199 1.09334
-0.181127 0.21145301 0.81928802
0.41297901 0.134149 1.00151
0.43297899 0.21995901 0.89994198
0.24445 0.2852 0.83193702
0.40371901 0.215473 0.90034598
0.21926799 0.071626902 1.01738
0.33175999 0.20865101 0.90548599
0.103078 0.0407518 1.0273499
0.165732 0.106034 0.97722101
0.090756603 0.163867 0.914029
-0.35129899 -0.0109717 1.00669
0.359442 0.19785701 0.91990501
-0.105463 0.103842 0.93802798
0.412545 0.20205 0.925892
0.038441598 0.134288 0.93367398
-0.159958 0.053817298 0.97695202
-0.32695201 -0.022946199 1.01631
0.37860599 0.157648 0.97215402
-0.37869701 -0.049195301 1.02473
0.33386999 0.188262 0.92853099
-0.0250063 -0.0179595 1.06283
0.390948 0.174025 0.94409198
0.37866899 0.158795 0.97216702
0.379224 -0.0040829699 1.12621
-0.0086040702 0.28787601 0.77881002
0.101708 0.161873 0.91767102
0.28349 0.26181099 0.85364199
-0.051438801 -0.0126383 1.05454
0.375076 -0.071367301 1.1807899
0.291565 0.30721301 0.80298603
-0.167097 -0.19282299 1.20464
-0.345676 -0.0068715801 0.99444598
0.41654199 0.046103999 1.0792201
0.23346201 0.29487401 0.80885702
-0.081556603 0.25713301 0.79170299
0.39827701 0.117003 0.99465102
0.040815499 0.29765001 0.777574
0.120555 0.0549803 1.0106
0.49303901 0.124942 1.00159
-0.16329899 0.021482101 1.00565
0.0211058 0.080446899 0.97910601
0.125861 0.294027 0.79197001
0.37772799 0.205437 0.91432297
-0.317808 -0.088670202 1.08052
0.110886 0.17682999 0.90480697
0.41850701 0.20715 0.92221099
0.25652799 0.26089799 0.83610302
0.33451301 -0.082805797 1.18938
-0.122699 0.0355043 0.99891698
-0.29043499 0.0304251 0.973481
0.081160001 0.065461397 0.99116701
-0.207857 -0.189669 1.20372
0.079389296 0.12582099 0.94673598
0.098834202 0.30780599 0.76706702
-0.326078 0.022287 0.96973997
0.170819 0.28740299 0.80674899
0.204576 0.084730498 1.00212
-0.28675801 -0.0712227 1.06925
0.51433301 0.074237503 1.05671
0.17758501 0.29519001 0.80765802
0.336007 -0.029743001 1.13325
0.14608701 0.28400901 0.81206203
0.305617 0.271227 0.836492
0.35942999 0.199469 0.92142999
0.221485 0.28588599 0.82055098
-0.0131119 -0.230206 1.26092
0.337055 0.0254569 1.0803
-0.153054 0.248217 0.80169803
-0.28760901 0.074324697 0.93213499
0.1441 0.32892799 0.75652099
-0.217336 0.176377 0.84353203
0.388688 0.13926899 0.98124498
-0.087394297 -0.078536898 1.11336
-0.271119 -0.108134 1.09913
-0.30995101 -0.0438345 1.04537
0.35261199 -0.060673099 1.1699899
0.39621401 -0.012662 1.12822
-0.084771499 0.116605 0.93040103
0.43884 0.228058 0.89572299
0.384709 0.0097874003 1.102
-0.224664 0.178789 0.84315199
-0.295082 -0.0106674 1.00801
0.46121299 0.100028 1.02273
0.42831299 0.099600598 1.0232
0.120285 0.118104 0.96051598
0.268053 -0.041965999 1.12026
0.42828399 0.105005 1.0233001
0.42040399 0.0139738 1.10892
0.31793499 -0.026035801 1.12629
0.230212 0.058724999 1.0340199
0.018208001 -0.100943 1.14888
0.223133 -0.027587499 1.10855
0.35202101 0.21417899 0.90209597
0.46690899 0.084358603 1.03455
-0.309668 0.00656409 0.989191
-0.31419301 -0.16563299 1.14948
0.299988 -0.025988299 1.12467
0.448531 0.051598601 1.07096
-0.108581 0.25031 0.791219
-0.165448 0.0069189798 1.02417
0.28559199 -0.022244399 1.12156
-0.286782 0.0353471 0.96790802
0.29447699 0.211962 0.88990402
0.44225499 0.061592299 1.06399
-0.35344401 -0.100602 1.0774601
-0.064630702 -0.085047603 1.12228
-0.142175 -0.043347102 1.0745699
0.118844 0.074659601 0.99864501
0.35857999 0.230729 0.880606
0.34161499 0.21290299 0.89679199
0.38992199 0.0376986 1.07794
-0.32342499 -0.112367 1.09367
-0.30882201 -0.128803 1.12187
-0.312433 -0.045580201 1.03905
0.43433201 0.0145631 1.10238
-0.236324 0.059988901 0.95967001
0.429874 0.160145 0.96852702
0.40074 0.138209 0.98318797
0.41523501 0.076043002 1.03982
0.41133401 0.050240599 1.06594
0.448598 0.0609533 1.07459
0.405898 0.11688 1.00878
0.44732299 0.106383 1.01818
0.36887699 0.152274 0.96237803
0.345094 0.186243 0.93060303
0.198401 -0.053220499 1.14442
0.064123601 -0.030078501 1.09461
0.040255301 -0.097880103 1.15825
0.39454901 -0.0122029 1.1325001
-0.34900001 -0.0545968 1.04412
-0.326424 -0.040751901 1.04146
-0.299813 -0.084723502 1.09525
-0.265277 -0.129035 1.14073
-0.13880301 -0.045801599 1.07438
-0.0273904 -0.090953 1.1384701
0.485921 0.12685201 0.99636698
0.37424201 -0.197482 1.3041199
0.454418 0.174393 0.95231599
0.419833 0.209565 0.90871203
0.41541401 0.206644 0.92175299
0.51077598 0.076567799 1.05546
-0.242257 -0.177628 1.19155
-0.205714 0.048204198 0.96913701
-0.23226 -0.15766899 1.17772
0.0165477 0.075865597 0.98046798
0.397466 0.226731 0.887999
0.667216 -0.0312622 1.1766
0.16 -0.078713 1.1624399
0.249988 -0.36284301 1.42709
-0.22785699 0.073083997 0.94225401
-0.24247199 0.041761201 0.96905899
-0.22217999 -0.22825301 1.21996
-0.140055 0.067653 0.96209103
0.40649199 0.201794 0.93651497
0.39558899 -0.204586 1.30402
0.39646301 -0.205323 1.3109
0.072479703 0.120712 0.94824898
-0.49342999 -0.085149199 1.04501
-0.23745701 -0.13298599 1.14757
0.44574299 -0.137274 1.25377
0.413212 -0.39973199 1.4958
0.320685 0.21228699 0.89086002
0.178083 0.098336302 0.989824
-0.177256 0.044242699 0.978203
0.211817 0.075620703 1.01932
0.092695899 0.117509 0.95492899
0.21362901 -0.0370753 1.13245
-0.112366 -0.242036 1.26899
-0.209507 -0.175574 1.19056
-0.119249 -0.21157999 1.24354
-0.20630001 0.048514999 0.97253001
0.112708 0.114347 0.96179003
0.45909801 0.110352 1.0152
0.43662 0.208444 0.910173
0.20810799 -0.213478 1.2971801
0.31250101 -0.299739 1.37558
0.34264901 -0.240834 1.3301899
-0.24608999 0.043189101 0.97829902
0.39963201 -0.122712 1.2320499
0.249137 -0.357797 1.43098
-0.114676 0.244211 0.79233801
-0.152528 0.049846601 0.97439098
-0.064034499 0.117341 0.92615497
0.426689 -0.0133033 1.11853
-0.25671101 0.046423599 0.96182299
0.36636201 0.20806199 0.91765302
0.0073929098 0.055987999 0.99842602
0.349594 0.23063201 0.87806702
-0.018736601 0.114941 0.94202
-0.063967504 0.117358 0.92646497
0.12503 0.177661 0.90253401
0.33690801 0.211463 0.89465499
0.122735 -0.26543099 1.31929
0.032462101 0.12658399 0.93492699
0.110531 0.15735801 0.91939801
-0.086501896 0.108068 0.93131202
0.48900899 0.084453203 1.0425
-0.228581 -0.157463 1.16444
0.29960299 0.22945701 0.87259001
0.252902 -0.20935 1.2970901
-0.105084 -0.30409899 1.30869
-0.086123101 0.107622 0.92944199
-0.30027699 -0.0054431101 1.01662
0.28715199 -0.26253501 1.34048
0.30974099 -0.26538 1.34588
-0.040219098 0.124095 0.92449898
0.102376 0.169972 0.90646201
0.47925499 0.060506701 1.06848
0.50275499 0.0904788 1.03977
0.395888 -0.228708 1.33039
-0.0155854 0.127764 0.92469603
-0.139755 0.067437202 0.96141499
0.110255 0.15884601 0.92749298
-0.16201 0.00087761 1.02314
-0.316185 -0.074185602 1.08402
0.44554999 0.105183 1.01123
-0.29201001 -0.26630801 1.26974
-0.152587 0.050378401 0.97609001
0.39924899 0.199486 0.912911
0.097171798 0.0422341 1.02935
-0.31923401 -0.118499 1.11405
0.083394103 0.157038 0.91604698
0.066226803 -0.30797201 1.35183
0.413656 -0.136939 1.2429399
0.38303199 0.0930591 1.02227
0.66568202 -0.33634099 1.46181
0.37571999 -0.20307299 1.3093899
0.47206199 0.117867 1.01604
0.110464 0.00032999 1.0679899
-0.056508899 -0.225527 1.2631201
0.369212 -0.13585 1.24972
0.38945901 0.23526099 0.87665302
0.091975398 0.17148399 0.90150797
-0.0275824 -0.10188 1.15179
0.42394099 0.105085 1.0209
0.132148 -0.28581199 1.33535
0.045165099 -0.250296 1.30009
0.40253001 0.16803899 0.95038003
-0.188408 -0.186435 1.19635
-0.25603101 0.10179 0.90749401
0.35131401 0.182469 0.93931198
0.41499299 0.092255898 1.0313801
0.52441001 0.102484 1.02844
0.29829901 0.25769699 0.841169
0.440366 0.134195 0.994313
0.49034601 0.169613 0.95876098
0.24996699 -0.35858801 1.434
0.093684003 0.154861 0.91867101
0.38340199 0.0464954 1.05521
-0.335127 -0.177577 1.15995
0.44876099 0.147101 0.98345703
-0.28484401 -0.098049 1.08911
-0.30598301 -0.046093501 1.03777
0.0220084 0.0881643 0.97029799
0.44087601 0.1346 0.99651498
0.437511 -0.391063 1.49
0.40211499 0.21764 0.91793603
-0.30231699 -0.239674 1.22237
0.27295199 -0.238952 1.32122
-0.038489699 0.019113701 1.02709
0.197713 -0.215774 1.2980601
-0.013882 -0.29002199 1.31304
-0.081447601 -0.31273299 1.3235199
-0.20871399 -0.31039 1.2998101
0.13505299 0.111676 0.96998698
0.301763 -0.226441 1.3213201
-0.065928198 0.295102 0.77071798
0.080985896 0.28661099 0.78561401
-0.31241301 0.00121009 0.99690098
0.441829 -0.30938599 1.40008
-0.338842 -0.133044 1.11219
0.052031498 0.123702 0.94101298
0.0089255003 0.128602 0.92858797
0.25614399 0.238148 0.86218703
-0.160055 -0.30328599 1.3086801
-0.214633 -0.20774899 1.21541
0.57831299 0.14339501 1.0043
0.42684501 -0.168027 1.27542
0.157392 0.105926 0.97857898
0.489548 0.116581 1.0251
-0.106951 0.096296102 0.939116
0.033482801 0.28290501 0.78173798
0.70269197 -0.133467 1.27966
0.397836 -0.1582 1.2754
0.45462099 0.158804 0.98088002
0.23450901 0.0102331 1.0818
0.48832899 0.081179403 1.04502
0.38990599 -0.085752897 1.1821899
-0.0027747001 -0.090885498 1.14574
0.123283 0.0367385 1.04058
0.32708099 -0.19872899 1.3025399
0.315842 -0.242474 1.33222
-0.304445 -0.094217598 1.08283
-0.228276 -0.157003 1.16605
0.18157899 -0.25455901 1.31848
0.30362201 0.20445 0.89264899
0.29969999 0.219731 0.892533
-0.0153644 0.082805 0.96857798
0.280628 -0.0168391 1.12367
-0.026301701 -0.0168662 1.06376
-0.17096201 0.19984999 0.82661402
0.26332101 -0.020831199 1.12615
0.35977399 -0.163808 1.26929
0.45114201 0.194194 0.93865699
0.422304 0.14676499 0.97814602
0.31835201 -0.18487699 1.28941
0.40442899 0.104971 1.0286
0.24885 -0.0184473 1.12076
-0.00426054 0.0303551 1.01923
0.43708 0.086406097 1.04371
0.137364 -0.088589802 1.16721
0.42233801 0.103823 1.01829
0.29799101 -0.201704 1.2851
0.32838601 0.239162 0.87649298
0.101705 0.071419597 1.00216
-0.065359898 0.28284901 0.76454997
0.355243 -0.171345 1.2641
0.40019 -0.176991 1.28863
-0.150365 -0.031704102 1.05793
0.080090098 -0.245832 1.3013901
0.180769 -0.066577204 1.15617
0.111369 0.0727164 1.00047
0.113491 -0.238187 1.30178
0.160184 0.281762 0.80534798
-0.161759 0.0179167 1.00544
-0.154714 0.21206599 0.82296199
0.477586 0.117054 1.02696
0.25419599 -0.215051 1.3066601
0.57261503 0.13117599 1.01449
-0.0523182 0.255016 0.79544902
-0.25725001 -0.11215 1.11695
-0.090948798 -0.244212 1.2678699
0.48023301 0.093828902 1.04918
-0.175238 0.220948 0.80344599
0.31473899 -0.219853 1.30971
-0.124956 -0.057949699 1.09503
0.40803799 -0.20205501 1.30075
0.42268801 0.216383 0.917629
0.231068 0.045614999 1.05276
-0.16394299 -0.183042 1.20796
0.49850199 0.122214 1.01535
0.073478296 -0.267939 1.3141201
-0.0143049 0.27844301 0.774167
0.38048899 0.19154599 0.94407201
0.60983402 0.193712 0.95345998
-0.124775 0.082673296 0.949009
0.362593 -0.22857399 1.33025
-0.15830299 -0.016301701 1.04001
-0.087513 0.068380304 0.97011101
0.248447 -0.245554 1.32284
0.28238201 -0.205584 1.29594
-0.046478398 -0.253411 1.28462
0.50316298 0.083425499 1.0574501
0.095188797 0.275911 0.80225599
0.32165101 -0.041733298 1.15476
-0.28437799 -0.120462 1.11884
0.23627099 0.0292817 1.07174
-0.30348399 -0.081920102 1.07171
0.19698399 0.088190898 1.00403
0.379803 0.160267 0.969778
0.405637 0.089081198 1.04387
-0.124894 -0.0614237 1.08764
0.49079999 0.174142 0.96147001
0.065320402 -0.28456199 1.3195
0.144925 -0.235909 1.29794
0.099519797 0.18954 0.88529599
0.20366199 0.289794 0.80050302
0.055851899 0.077388503 0.98739803
0.31178701 -0.117706 1.21988
0.113558 -0.095439501 1.16895
-0.31257999 -0.118502 1.10198
-0.286488 -0.106678 1.09901
0.43554801 0.168364 0.96791703
0.230442 0.279035 0.81107098
-0.0291452 0.279964 0.77923399
-0.051537801 -0.0050633801 1.04767
-0.103959 -0.211914 1.24721
-0.173399 -0.230703 1.2410001
0.0103875 -0.10453 1.16308
0.35947099 -0.103206 1.21707
-0.036183398 -0.091857404 1.13469
0.12712 -0.213174 1.2821701
0.333583 0.222651 0.89698201
0.300127 -0.225734 1.31854
0.21050701 0.26778999 0.828794
-0.089273497 0.25197899 0.79084599
0.44678301 0.24563099 0.88305497
0.033731699 0.28487799 0.78101403
0.140147 0.290757 0.79368103
0.342839 -0.23377299 1.3153
-0.072571903 0.24791101 0.798778
0.378286 -0.192057 1.28109
-0.036784802 -0.118082 1.1615
-0.0211487 0.26345 0.79200101
0.311418 -0.22118799 1.30585
0.434286 0.192498 0.94217902
0.25880399 0.25625899 0.846798
0.43431699 0.193055 0.94230998
-0.323937 -0.410202 1.37597
-0.25783399 -0.16537499 1.16347
-0.244205 0.073903501 0.93928999
-0.21861599 -0.149609 1.15853
0.31669101 0.25829899 0.84447402
0.091041401 -0.20972 1.27467
0.178945 -0.069795899 1.15334
0.195557 -0.0033171901 1.09549
-0.0632177 -0.081628397 1.12383
0.28997999 -0.205222 1.29404
-0.43676201 -0.312195 1.285
0.135335 -0.249018 1.31578
0.226614 0.26850501 0.82712001
0.44150299 -0.182106 1.28799
0.54895997 0.193579 0.94115502
0.062501997 -0.102379 1.16299
0.095108598 -0.026857501 1.09618
0.375415 0.22452299 0.90812701
-0.117711 -0.22025999 1.2442501
0.45813301 0.25356701 0.87887502
0.33390099 -0.18092 1.28845
0.37562799 0.23968101 0.89437401
0.345678 -0.235833 1.31651
0.51264399 0.0946863 1.04646
-0.00309512 0.093149997 0.96085298
-0.13408101 -0.23418801 1.25088
-0.27546 -0.171887 1.1621701
-0.238116 0.134427 0.87823802
0.33377501 0.25187299 0.85627198
-0.26650101 -0.15634701 1.15029
0.172452 -0.00163626 1.08776
-0.110564 0.25039399 0.793567
0.49640399 0.21815801 0.91145498
-5.29469e-05 -0.27567801 1.30765
0.341286 0.218457 0.90034199
-0.081342801 -0.230073 1.2640899
0.44473699 -0.153107 1.26274
0.53387499 0.135418 1.00451
0.088567801 -0.099443302 1.16775
-0.045311399 -0.27297801 1.29967
-0.051895 -0.0119516 1.0561301
0.232317 0.046445601 1.0536799
0.0592831 -0.23413999 1.29223
-0.211316 -0.182843 1.19595
0.123282 0.30285299 0.79072797
0.077491902 -0.0097266296 1.06594
0.39715201 0.13466799 0.99927503
0.56727999 0.123975 1.01132
-0.10089 -0.20157 1.23777
0.43741 -0.152292 1.25655
0.20131101 -0.189463 1.2743599
0.121756 -0.242889 1.30083
0.32875901 -0.158217 1.25104
0.54369903 0.148617 0.99285799
0.43645301 0.168937 0.968027
-0.186693 -0.191752 1.2079099
0.40850201 0.14377099 0.991449
0.67739099 -0.306106 1.44055
0.160836 -0.220109 1.29412
0.246327 -0.27514899 1.34428
0.250837 0.248667 0.85793501
-0.164464 -0.18358 1.20575
0.39784399 0.128114 1.00445
0.28040701 -0.27633199 1.35536
-0.161439 0.041429199 0.983033
-0.133165 -0.26976201 1.27911
0.37684301 0.183569 0.93618703
0.57456601 0.067332797 1.07002
0.41126299 0.120429 1.01362
0.54810297 0.15197 0.99422801
0.086550601 0.276057 0.80065203
-0.106934 0.041085102 0.99074399
0.354601 0.20454399 0.91951799
0.51790601 0.091634698 1.05051
-0.30183101 -0.442561 1.41584
0.180875 0.000238643 1.09094
-0.045923099 -0.253456 1.2852
-0.106654 -0.071167603 1.10104
0.26662201 -0.24156 1.3132499
0.29129499 -0.13607199 1.23843
-0.028588399 -0.105704 1.14851
0.25364599 -0.033838902 1.12893
0.090164602 -0.0352089 1.1017801
0.036532901 -0.44793001 1.46978
0.471071 0.181687 0.965078
0.088973902 0.28981599 0.78981
0.30267599 0.26342899 0.84424901
0.113378 0.28611201 0.79512399
-0.31160799 -0.068304397 1.06244
0.496407 0.178021 0.95790601
0.37329099 -0.14571001 1.25455
0.27964699 0.26084399 0.85897499
0.112539 0.0060697799 1.06765
0.175064 -0.185868 1.26522
0.233568 0.27911499 0.82549101
-0.110333 0.25249699 0.79160702
0.167363 -0.47048801 1.50876
0.11037 0.192761 0.89137203
-0.046177998 -0.27491799 1.29486
0.53389198 0.13486899 1.00517
-0.11389 0.29759201 0.74284899
0.244294 -0.164903 1.2573299
0.162683 -0.232282 1.29722
0.32694799 0.217095 0.90479898
-0.14981399 -0.22775 1.2432899
-0.18197399 -0.173839 1.19326
0.117712 0.29258701 0.793396
0.30837199 0.27076101 0.84332502
0.35085699 0.22670899 0.89890999
0.23547401 0.0105571 1.08846
0.195373 -0.218518 1.2934901
0.44685999 -0.118065 1.21983
0.53495198 0.16347 0.97929299
-0.308144 -0.063926198 1.05252
0.28990799 -0.208644 1.28961
0.022636401 0.087741598 0.97263199
0.38266301 -0.18767899 1.28335
0.37219301 -0.19132499 1.2942801
0.389889 -0.096957199 1.2122999
0.30997899 -0.24670599 1.33053
0.25808099 -0.241486 1.31437
-0.29374599 -0.048869401 1.04427
0.430581 0.11189 1.02566
-0.086537801 -0.080471702 1.11242
0.26999101 -0.16086 1.2538
-0.0108928 0.090146497 0.96837902
-0.0084252497 0.14825 0.915631
0.45486 0.25617999 0.88254201
-0.16220599 0.00052833598 1.0228601
0.223529 0.061287802 1.03574
0.31407699 -0.216619 1.29606
0.48959401 0.114373 1.02073
0.303599 0.23514199 0.87672198
0.29852 -0.185021 1.279
0.200637 0.28953901 0.81755298
0.381127 0.236598 0.88254303
-0.0098977201 -0.215931 1.2647901
-0.063007601 -0.083189197 1.12183
-0.17383701 0.052128199 0.97131002
0.0947631 0.177598 0.90290302
0.231594 -0.0090015 1.10701
0.57365698 0.068507202 1.07119
0.38102901 -0.20712499 1.30586
0.165804 0.27930999 0.80849802
0.111716 -0.25233901 1.30711
0.23482201 0.027111299 1.07095
0.30895999 -0.219938 1.30141
0.20115 -0.192562 1.2750601
0.39317 -0.177222 1.2823499
0.26692501 -0.165547 1.25398
0.23233899 -0.0081344396 1.10752
0.469468 0.202922 0.931283
-0.150066 -0.0319224 1.05686
0.44923899 0.247833 0.88446498
0.400029 -0.197181 1.29897
0.56425297 0.105397 1.0356801
0.239622 -0.15449999 1.24738
-0.042609598 0.283189 0.778247
-0.00650944 0.019168399 1.02792
0.16127101 0.28667399 0.80661201
-0.173026 0.23672999 0.790999
0.33103099 -0.155636 1.25158
0.46439201 0.25077301 0.87730902
0.36984399 0.174054 0.95597303
-0.097999297 0.032884698 1.0052
-0.31024599 -0.062078401 1.05063
-0.028229199 -0.093547702 1.13666
-0.25309399 0.107257 0.90206802
0.098584399 0.16383199 0.91863501
-0.274676 -0.088699102 1.09031
0.016714901 -0.097427398 1.14886
-0.0905573 0.0622821 0.97468001
0.059696302 -0.23366401 1.2921799
0.47612199 0.089903198 1.04783
0.00105552 -0.118407 1.16496
0.23812599 0.27928999 0.816392
0.40999299 -0.13514601 1.24672
0.215004 0.29068699 0.80563098
0.148416 -0.42974499 1.48427
0.36564901 -0.092791297 1.20851
0.356628 -0.169698 1.26372
0.19921701 0.093753196 1.0039999
0.043039501 -0.254462 1.2962199
0.37189201 0.17507499 0.95481998
-0.29869401 -0.0948378 1.0843101
-0.00290183 -0.0937429 1.14229
-0.0264413 -0.12457 1.1657
0.076579504 -0.0086807301 1.06296
-0.25460899 0.056916401 0.95460802
0.55983698 0.100426 1.03464
0.39662999 -0.122989 1.23092
0.27426001 -0.23296 1.31835
-0.046418 0.27351201 0.78105599
0.39943501 -0.20174 1.2936
-0.23739401 -0.13207901 1.1409301
0.346237 0.27079299 0.85211903
0.54391199 0.209709 0.92621303
-0.234227 0.0535031 0.95846403
0.38315901 -0.10186 1.19867
0.246565 -0.212254 1.2901
0.208122 -0.225778 1.30153
0.46718499 0.14829899 0.99353302
0.32261699 -0.112416 1.21462
0.40270999 0.103017 1.02969
0.44611001 0.058968399 1.07623
0.14572801 -0.19838101 1.2703201
0.436717 -0.153607 1.2552201
0.100412 0.315671 0.76148897
0.354027 -0.073694699 1.18686
0.37942201 0.192396 0.94036102
0.53559202 0.123633 1.01059
0.308346 -0.022934301 1.13367
0.341822 0.262142 0.85480201
-0.159115 0.00571542 1.0217201
-0.15105499 -0.035055999 1.05695
-0.030583 -0.111474 1.15417
-0.166426 -0.189858 1.20444
0.480638 0.092597298 1.04152
0.33392 -0.24081901 1.31909
0.50445497 0.21324 0.91977298
0.356491 -0.16875701 1.26548
-0.32347101 -0.096627302 1.07832
-0.0107436 0.28985199 0.77812499
0.51907098 0.067229897 1.05782
-0.25776801 -0.112326 1.11652
0.481996 0.105531 1.03396
0.033275701 -0.21893901 1.27065
0.51302803 0.112523 1.0265599
0.28116 -0.26143199 1.33259
0.076088697 0.080054 0.98790598
0.35958701 -0.069127597 1.1866601
0.075011298 -0.100954 1.16079
0.0101559 0.135974 0.92185497
0.291547 -0.134712 1.23809
-0.112428 -0.213773 1.23085
-0.109221 0.099255301 0.93534601
0.32869399 -0.12857901 1.2368
0.394517 -0.118918 1.2356
-0.044987999 0.257283 0.79470903
-0.122637 0.0313567 0.99957901
0.35712999 0.207876 0.92005801
-0.203205 0.048517901 0.97069001
0.49647701 0.132622 1.00876
-0.00501179 0.021883 1.02967
-0.137465 0.238198 0.80147398
0.080136798 -0.242053 1.30058
0.43668899 0.19627801 0.93515098
0.0747879 -0.105342 1.1572599
0.47631001 0.119132 1.01862
0.341759 0.26338699 0.854738
0.41882399 -0.045347501 1.14788
0.35281399 -0.229581 1.3200099
-0.179645 0.21485899 0.80825502
0.086324297 -0.27272099 1.3181
1.06651 0.43380401 0.80619597
-0.29206401 -0.147357 1.13293
-0.138532 -0.0473697 1.07313
0.280139 -0.26235601 1.33204
-0.059606101 0.29373899 0.75484902
0.096224099 0.30307201 0.78673297
-0.21964701 -0.151967 1.16013
-0.232995 -0.135215 1.14456
0.0561102 0.13170999 0.94185102
0.036239199 0.13334 0.93510801
0.329137 0.22209001 0.90354198
0.249504 0.257599 0.83543301
0.37125701 0.21401601 0.90398198
-0.052180599 -0.394968 1.41203
0.37874699 0.161294 0.96929598
-0.15794 0.049572598 0.98134702
0.52117503 0.11143 1.01434
0.44096899 -0.183397 1.28822
-0.117515 -0.22401901 1.24396
0.177894 -0.25533399 1.31512
0.093994603 -0.253236 1.30432
-0.212786 -0.185376 1.18584
-0.0028876199 -0.092539497 1.1421601
-0.302369 0.040576398 0.95494998
0.280386 -0.184818 1.2815599
0.174042 0.00070604897 1.08795
0.416127 -0.19384301 1.2943799
-0.0078054802 0.015714301 1.02895
0.041327599 0.30344 0.77856302
0.48770201 0.236664 0.89541298
0.218804 0.282803 0.82701999
0.285321 -0.036570199 1.13897
0.49171001 -0.111925 1.2369601
0.38895699 0.149892 0.98275602
-0.095359102 0.245638 0.79193902
0.56164801 0.19823401 0.93868601
-0.27449101 -0.090112701 1.09117
-0.1612 0.22443999 0.80904198
-0.085470699 -0.0793074 1.11306
-0.25447899 0.045991302 0.963413
0.0085390201 -0.625422 1.65072
0.50228298 0.179251 0.963045
0.23912799 0.26212999 0.85150099
0.36922601 -0.30791599 1.38816
0.148619 0.0889934 0.99007601
-0.24570601 -0.16941801 1.16579
0.093305603 -0.295919 1.33246
0.148357 -0.19466101 1.27061
0.119642 -0.263217 1.31569
0.079452999 0.0066870698 1.05945
0.145937 -0.197155 1.26993
0.49868 0.172922 0.96252298
-0.26564601 -0.102147 1.10487
0.46308801 0.189799 0.94395602
-0.0543123 -0.25512901 1.27791
-0.119485 0.037071198 0.99875301
0.23488601 0.0296025 1.07092
0.24356 -0.25777599 1.33649
-0.058108501 -0.085874602 1.1183
0.35556901 -0.163238 1.2704
0.113299 0.115779 0.96302098
-0.084659301 0.0297407 1.00499
-0.0141721 0.133945 0.91903102
-0.051177699 -0.393525 1.41215
-0.107266 -0.466575 1.46508
-0.446289 -0.225005 1.18499
0.0075958399 0.284464 0.777107
0.53223699 0.16386101 0.96999502
0.26650801 0.26854199 0.84597701
0.164156 0.29221499 0.80554003
-0.39927801 -0.195682 1.16787
0.095304102 -0.29379201 1.33369
0.38525599 -0.17950401 1.28791
0.095922902 0.123085 0.95576102
-0.084141597 0.113379 0.93147397
0.446711 0.21822301 0.916242
0.056214999 -0.21849801 1.27323
-0.0075879502 0.0181228 1.0286
0.086929597 0.30484 0.767124
-0.30915201 -0.058728799 1.0506099
-0.160327 -0.38131899 1.37351
-0.48001999 -0.0833885 1.04167
0.48884699 0.23932 0.89478701
-0.106471 -0.46544901 1.46536
0.42574799 -0.37900701 1.4631
0.16449 -0.25683701 1.31389
-0.298554 -0.094097301 1.08485
0.19736999 0.309935 0.78134698
0.245203 -0.21933 1.30092
-0.067363501 0.273662 0.78214699
-0.0242383 -0.45877299 1.4742
-0.0249051 -0.0152958 1.06278
-0.10559 -0.070667498 1.1016099
0.49858299 0.154661 0.98692602
-0.156482 -0.0142174 1.03978
0.39399901 0.0070608999 1.11818
0.0122171 0.29655701 0.77522302
0.28026399 -0.240022 1.32137
0.24665999 -0.212557 1.2901
-0.010827 -0.23713399 1.27679
0.35039899 -0.175341 1.2646101
0.362342 -0.096849099 1.20789
0.196991 -0.21172699 1.28818
0.093635999 0.31713101 0.764144
0.094110399 -0.236495 1.29293
0.40230799 0.045895301 1.08165
0.087316297 -0.101582 1.1666
0.388632 -0.20134699 1.29895
0.511693 0.085622199 1.05013
0.432926 0.20783401 0.92488402
-0.192996 -0.352088 1.34067
-0.26986599 -0.104663 1.09965
-0.0078575201 0.0227398 1.0264699
-0.309939 -0.047730599 1.03555
-0.286093 0.037004799 0.96675903
0.16389599 0.313072 0.77907401
0.41288799 -0.137677 1.24076
0.17400201 0.29111999 0.80880499
0.010333 0.128223 0.92469001
-0.035255801 0.28322199 0.778207
0.158529 -0.079139002 1.1601599
-0.30972201 0.0049270699 0.98945999
-0.15308601 0.056670699 0.97602803
0.406526 0.22885799 0.89741701
0.0089574596 -0.108022 1.15868
-0.0097882301 0.29295799 0.777372
-0.18367 0.214496 0.818793
0.40328899 0.0874286 1.04337
0.186745 0.26845101 0.83159399
0.056384999 0.13221399 0.94121099
-0.190295 -0.196659 1.2082
-0.15172499 0.23022699 0.80599898
